# .PCD v0.7 - Point Cloud Data file format
VERSION 0.7
FIELDS x y z
SIZE 4 4 4
TYPE F F F
COUNT 1 1 1
WIDTH 3362
HEIGHT 1
VIEWPOINT 0 0 0 1 0 0 0
POINTS 3362
DATA ascii
131 2794 353
136 2663 173
136 2893 726
137 2803 73
137 2884 946
138 2786 613
141 2882 930
143 2852 934
149 2787 723
151 2795 452
155 2907 434
157 2776 180
157 2943 993
162 2804 163
163 2997 682
169 3002 538
170 2945 940
171 2920 148
175 2819 729
177 2804 941
178 2670 150
178 3007 388
180 2787 935
183 2885 938
183 3012 243
184 2941 983
186 2744 170
188 3017 99
189 2833 455
191 2876 962
194 2658 176
197 2862 969
199 2737 150
201 2846 186
203 2950 819
209 2732 400
210 2954 1015
211 2939 1009
216 2726 658
218 2963 541
220 2572 88
226 2994 1039
233 2908 641
236 2795 969
237 2715 647
237 2727 425
237 2804 938
237 2977 247
238 2778 936
241 2528 150
243 2576 180
243 2739 182
243 2871 985
244 2796 958
249 2460 169
249 2467 188
250 2873 997
253 2673 732
255 2933 1010
256 2818 647
258 2876 977
259 2558 185
263 2964 1044
265 2934 1028
271 2708 735
272 2589 183
273 3026 843
274 2656 97
274 2728 954
274 2810 632
275 3015 1057
278 2697 932
279 2660 704
279 2818 356
282 2416 77
284 2623 724
284 2676 157
285 2424 158
286 2798 971
287 2522 201
287 2669 420
292 2788 974
293 3040 547
295 2987 1063
296 2866 1008
298 2416 185
298 2711 639
299 2708 956
301 2637 442
302 2658 928
303 2470 206
303 2883 1022
304 2741 633
304 3091 1101
306 3105 1097
308 2586 197
308 2757 88
309 2750 355
311 3054 258
312 2569 197
314 2682 942
315 2650 164
316 2477 201
316 2788 991
316 2975 1071
317 2929 1051
326 2925 1038
326 3060 1094
327 3010 1079
328 2585 194
329 2692 962
330 2736 986
330 2868 1008
334 2744 713
336 2418 190
339 2793 993
342 2578 673
344 2518 210
344 2586 402
345 2607 937
345 2798 1002
349 2861 1028
350 3121 713
352 3115 174
353 2640 939
356 2481 207
356 2894 1049
357 2666 964
357 3101 1128
359 3100 1116
365 2978 1090
366 2622 639
367 2692 978
370 2391 41
370 2427 189
370 2985 1098
370 3136 418
371 2924 1071
372 2700 991
379 3005 1100
382 2687 986
384 2568 427
385 3149 139
386 2584 729
386 2780 1017
388 2695 103
390 2680 637
392 2570 952
392 2788 1015
393 2688 364
396 2602 966
396 2917 1064
396 3052 1119
398 2415 174
399 2809 1028
400 2860 1032
401 2371 38
402 2856 1050
404 2514 204
405 2493 175
405 3138 1149
406 2581 960
408 2492 196
409 2904 1077
410 3112 1155
410 3219 1193
413 3095 1136
415 2674 993
416 2584 88
421 2702 1006
423 2402 46
423 2919 1094
423 2996 1127
424 2539 940
425 3157 1173
427 2608 117
427 2631 978
429 2475 937
429 3191 1189
430 2601 382
433 2579 951
433 3000 1120
433 3169 924
434 2682 1007
436 2970 1117
437 2482 932
438 2591 768
441 2692 1016
445 2783 1037
446 2581 985
448 2597 989
451 3183 642
452 2819 1056
455 2851 1072
458 2771 1048
463 2488 945
463 2578 133
463 3122 1182
464 2589 990
464 3230 1218
465 3089 1158
466 3196 363
468 3043 1150
470 2852 1059
473 2713 1032
474 2500 320
475 2504 185
475 2534 968
475 2914 1117
475 3130 1176
476 2568 306
476 3006 1154
477 2493 584
477 3151 1195
479 2424 932
479 2497 446
480 2557 512
480 3209 88
484 2483 970
485 2995 1144
487 2677 1027
488 2491 698
488 2493 964
498 2778 1058
498 3183 1211
499 2591 1012
499 2623 1006
501 2468 942
501 2592 1009
504 3209 1238
505 2830 1083
506 2571 985
507 2846 1094
507 2962 1146
512 2684 1044
516 2925 1145
516 3133 1208
516 3240 1245
519 2408 948
519 3084 1179
527 2723 1058
527 2908 1144
527 3223 934
528 2529 991
528 3241 1268
529 2763 1075
529 3017 1181
530 3146 1217
531 2448 306
533 2432 968
536 2480 979
538 2901 1123
538 2990 1167
539 3035 1179
540 2456 154
540 2672 1050
541 2503 993
543 2492 998
543 2843 1093
543 3237 658
544 2449 416
545 2496 343
545 2508 121
545 3122 1203
548 2364 936
548 2443 676
551 2773 1079
552 2463 969
552 2601 1035
554 2587 1033
556 3204 1261
558 2840 1109
560 2411 959
560 2841 1115
561 3250 372
566 2371 950
567 3175 1237
569 2615 1032
569 2935 1162
569 3143 1239
569 3251 1270
571 3079 1202
572 2488 462
574 3263 105
575 2342 942
576 2563 1011
579 2954 1177
580 2733 1086
581 2524 1011
581 2904 1162
582 3027 1211
583 2676 1073
583 3141 1238
588 2463 201
589 2399 105
589 2455 468
590 2284 929
591 2985 1187
592 2441 997
593 2304 255
593 2392 367
593 2396 233
593 2399 984
593 2667 1072
594 2404 110
594 2514 1017
596 2298 939
596 2389 495
596 3234 1289
600 2359 964
600 2755 1106
601 2386 620
603 2768 1100
605 2394 289
605 2458 992
605 2612 1065
607 2384 743
607 2472 1007
607 2582 1055
607 3296 1065
608 3199 1286
609 3027 1207
609 3285 1275
611 2850 1140
611 2892 1155
612 2383 483
612 3343 1245
613 2422 986
613 2836 1137
614 2835 1121
616 3114 1231
618 2264 935
621 2379 983
621 2946 1186
621 3154 1264
621 3262 1284
623 2299 263
623 3074 1224
629 3312 1252
633 2744 1115
633 2899 1183
634 2519 1031
635 3038 1238
636 3136 1258
636 3311 744
638 3167 1265
639 2607 1061
644 2979 1209
644 3323 495
646 2292 961
646 2333 972
646 2555 1038
646 2662 1093
648 2524 1044
648 2946 1203
648 3229 1265
650 2308 971
652 2354 988
653 2197 934
655 2667 1103
656 2217 262
656 2763 1124
658 2453 1012
658 2622 1092
659 2577 1078
659 3337 219
660 3386 1228
661 2315 266
663 2391 1010
663 3355 1217
664 2861 1168
665 2831 1161
666 2432 1013
669 2259 965
669 2312 387
670 2160 243
671 2309 516
671 2747 1135
672 3273 1255
673 3195 1263
674 2306 644
674 2956 1216
674 3164 1288
675 2198 938
675 3069 1247
676 3282 1243
678 2463 1036
680 2233 267
680 3019 1236
681 2294 270
681 2884 1183
681 3306 1230
686 2283 469
686 2754 1142
686 2827 1153
686 2893 1205
686 3106 1260
687 2514 1054
688 3048 1266
689 3131 1280
692 3396 1204
693 2176 939
694 2189 948
697 2974 1231
699 2657 1114
701 2534 1072
701 3224 1242
703 2318 997
703 3402 857
704 3159 1281
706 2349 1008
708 2758 1148
709 2261 963
710 2164 269
710 2599 1088
711 2448 1034
711 2572 1103
711 2632 1122
714 3366 1190
716 2547 1065
717 2871 1195
718 2325 1004
718 2826 1183
719 2442 1041
720 2227 283
720 2938 1234
721 2219 549
721 2224 414
722 2254 987
722 3416 569
723 3284 1226
725 2659 1131
725 3176 1258
727 2217 671
727 2966 1246
727 3382 1197
729 2193 958
729 3064 1268
733 3302 1204
734 2170 263
734 2383 1039
739 2509 1076
739 2764 1170
739 2888 1228
739 3191 1234
740 2229 266
740 3059 1287
741 3429 281
743 2738 1166
743 3278 1212
744 3446 1155
745 3391 1182
747 2199 979
748 2038 42
748 2455 1063
749 2969 1254
750 2011 43
750 3127 1271
751 2652 1136
752 2088 938
752 2876 1214
752 3011 1267
754 2544 1100
754 3219 1221
756 2329 1024
756 2819 1181
757 3098 1287
757 3154 1260
758 2119 142
759 2344 1029
762 2220 403
762 2753 1167
763 2443 1057
764 2125 935
764 2643 1148
765 2167 971
765 2567 1121
765 3377 1163
769 2160 269
770 1891 54
770 2881 1224
771 2821 1205
772 2452 1068
775 2175 323
775 2249 1010
775 3296 1199
777 2171 455
779 2168 583
779 2253 991
779 3186 1323
780 2977 1272
781 2164 714
781 2188 982
781 2590 1119
782 1914 56
782 3059 1287
784 1948 38
784 2103 954
785 2071 43
786 2040 110
786 3296 1185
788 2317 1029
788 2538 1097
788 3471 1112
791 1903 52
791 3070 1258
792 2504 1099
792 2775 1200
792 2883 1249
792 2929 1265
795 3379 1163
796 2651 1162
797 3463 744
798 3386 1160
800 2209 1009
802 2964 1275
803 2647 1161
803 3122 1291
804 3453 1124
805 2375 1068
806 3188 1204
806 3214 1197
807 2555 1128
809 2339 1049
810 3093 1266
810 3274 1183
810 3442 1126
812 2063 161
812 2339 1049
813 2730 1194
814 2748 1190
816 2120 962
816 3004 1278
817 2438 1077
817 2653 1177
817 3389 1135
817 3477 456
818 2562 1142
819 2128 169
819 2447 1094
822 2124 297
822 2892 1253
823 2816 1226
823 2868 1241
825 2463 1092
826 2079 976
826 2121 424
826 3307 1169
827 2810 1211
827 3198 1203
828 2118 553
828 2244 1027
830 2156 262
832 2987 1281
832 3490 183
833 3145 1304
834 2183 1004
835 2021 944
837 1850 57
837 2113 985
837 2159 1002
837 3483 1086
838 2145 448
839 3291 1161
843 1910 50
843 1913 48
843 3081 1230
844 2878 1271
845 2499 1122
845 2785 1226
848 3055 1261
850 3381 1136
851 1904 43
851 2244 1022
852 2582 1148
853 2219 1033
853 3116 1323
855 1846 54
856 2020 944
856 3448 1101
857 1778 45
857 2642 1182
858 2309 1057
858 2922 1283
859 2530 1126
859 2960 1278
859 3209 1175
860 2565 1155
861 3375 1136
862 2349 1078
862 3088 1242
862 3144 1214
864 2334 1072
867 2743 1212
868 2115 986
868 2642 1192
868 2999 1255
868 3400 1104
869 2056 94
870 2433 1097
870 2557 1166
870 2663 1205
871 2048 360
874 2059 150
874 2367 1093
874 3184 1173
875 2902 1280
876 2810 1249
876 3318 1143
878 2049 354
878 2473 1119
878 3209 1176
878 3271 1151
878 3438 1095
880 2239 1054
883 2020 964
883 2999 1253
884 2722 1223
886 2016 971
886 2038 544
887 1926 936
887 2178 1025
888 3494 1060
889 2439 1120
890 2057 191
890 2124 1013
890 3503 1052
892 3286 1141
893 2860 1268
894 3092 1200
896 2071 1001
897 2494 1144
898 1846 50
898 2795 1256
899 2802 1242
899 2873 1285
900 1959 945
900 3519 834
901 3508 1044
902 3380 940
903 3376 1114
906 2151 1026
906 2229 1062
909 2637 1205
910 3443 1079
911 2917 1259
911 3204 1151
912 1968 79
913 2575 1186
913 3083 1217
913 3139 1187
915 2359 1105
915 3532 564
916 3052 1229
917 2329 1095
919 2738 1235
919 3411 1078
921 2110 1007
921 2236 1050
921 2994 1234
922 2428 1121
922 2552 1189
923 1912 940
923 2574 1179
923 2674 1233
927 2913 1272
927 2956 1248
928 3329 1115
929 2011 981
929 2300 1088
929 2522 1155
929 2805 1272
929 3221 1147
929 3371 1104
930 1967 182
931 2483 1148
932 3545 283
933 2234 1076
935 1954 333
935 3010 1225
937 2030 993
938 1966 104
938 2634 1220
939 1921 965
939 2011 994
940 2173 1047
940 3181 1143
940 3506 1032
943 2134 1037
943 3498 1031
944 3267 1122
944 3281 1117
944 3435 1067
945 3103 1174
946 2358 1125
947 1868 940
950 2806 1285
951 2489 1164
951 3116 1182
955 1856 933
955 2714 1252
956 2853 1277
958 3370 1098
959 2240 1089
959 2431 1148
961 1946 455
961 2632 1227
962 3438 1057
963 2912 1237
964 3199 1132
965 2585 1210
966 3134 1167
967 2062 1031
967 2870 1253
967 3078 1198
968 1951 969
968 2370 1134
968 3504 1018
969 2324 1119
969 2794 1271
970 3423 1051
972 1644 125
972 2733 1257
974 2105 1029
974 2989 1211
975 2423 1143
976 1694 138
976 1922 973
976 2547 1208
976 2684 1261
977 2143 1058
977 3576 996
978 2924 1245
979 3341 1079
981 3232 1120
981 3605 870
982 3048 1202
983 2801 1287
984 2493 1176
984 3631 973
986 2229 1097
986 3021 1198
988 1823 372
989 1787 939
990 2041 1019
991 1916 987
991 2228 1077
991 3517 1002
992 2006 1014
993 2169 1067
993 2953 1220
994 1835 136
994 2566 1208
996 2144 1065
996 3115 1148
996 3368 1076
996 3493 1009
997 3276 1096
999 2292 1116
999 2514 1182
1000 2003 1010
1001 3590 194
1002 1575 85
1002 2817 1268
1003 2484 1185
1004 3586 379
1006 3582 559
1007 3177 1116
1008 1741 99
1008 1851 960
1008 2626 1249
1008 3365 1071
1009 2848 1255
1010 3264 1098
1011 3431 1039
1012 2250 1116
1012 3597 970
1014 2627 1250
1015 2907 1214
1015 3433 1036
1016 1804 700
1016 2350 1154
1016 3194 1108
1017 3113 1153
1018 2596 1238
1019 3073 1175
1019 3129 1146
1020 1859 974
1020 2380 1161
1021 3434 1026
1022 2319 1140
1023 1816 461
1023 2531 1462
1025 1639 148
1025 2706 1280
1025 2728 1278
1026 2984 1188
1027 2100 1049
1027 3663 956
1028 1607 140
1028 2418 1166
1028 2542 1231
1028 2694 1288
1029 3571 972
1030 1704 151
1030 1887 234
1030 1932 1003
1030 3352 1061
1031 2422 1179
1031 2787 1275
1032 3243 1091
1033 2934 1325
1034 1786 953
1034 2867 1223
1035 2933 1321
1035 3500 988
1035 3642 940
1036 2054 1056
1037 2503 1204
1037 3032 1171
1038 1877 423
1038 1943 996
1039 2224 1117
1042 1797 965
1042 2051 1044
1042 3528 979
1043 1866 619
1044 1911 1009
1045 2164 1091
1046 2001 1033
1047 3126 1119
1048 1724 384
1049 2154 1101
1049 3045 1174
1049 3487 989
1050 1569 133
1050 1735 162
1050 2134 1093
1050 2797 1257
1050 3271 1075
1052 3506 120
1053 2828 1244
1055 3502 307
1056 2479 1208
1058 3497 491
1060 1846 983
1060 2949 1188
1061 3360 1050
1062 3364 1049
1063 2219 1109
1064 2558 1236
1064 2859 1322
1065 2260 1143
1066 1787 949
1067 2622 1272
1068 3427 1013
1069 1995 1033
1069 3189 1085
1070 1732 939
1070 2284 1144
1071 2505 1213
1071 2606 1267
1072 3068 1153
1072 3124 1124
1073 2390 1191
1073 3173 1090
1073 3445 996
1074 1704 719
1074 2314 1164
1077 3260 1066
1078 2603 1434
1078 2979 1165
1078 3427 1010
1080 2095 1071
1080 2413 1187
1080 2618 1280
1080 2705 1263
1080 3566 945
1081 1618 152
1081 2700 1269
1082 1942 1028
1082 3364 1034
1082 3594 934
1083 2723 1279
1083 2782 1253
1083 3109 1127
1083 3254 1065
1084 2944 1326
1085 1635 147
1086 2342 1182
1088 3043 1143
1090 2514 1233
1090 2613 1393
1091 1851 1006
1091 2219 1141
1091 2837 1318
1092 1801 641
1093 3540 945
1095 1807 994
1095 2061 1072
1098 1906 1028
1098 2159 1112
1098 3137 1096
1099 1492 100
1099 1996 1054
1099 2551 1333
1101 3497 960
1102 2164 1116
1102 2414 1210
1103 3266 1052
1103 3482 968
1104 1564 151
1104 1704 952
1104 2839 1214
1106 1777 985
1106 2046 1084
1107 1493 141
1108 1934 1024
1108 2474 1233
1113 1720 363
1113 1841 1005
1113 2716 1382
1113 2894 1321
1114 2838 1210
1115 3355 1029
1116 1782 978
1116 3041 1144
1117 2794 1228
1118 2126 1114
1118 2270 1173
1121 3422 992
1121 3434 466
1122 2617 1283
1122 3184 1064
1124 2855 1319
1124 3063 1130
1124 3457 973
1126 1606 643
1126 2400 1217
1126 3119 1108
1127 1688 953
1127 2310 1185
1127 2615 1405
1127 2946 1162
1128 1618 424
1129 3360 1020
1131 2716 1235
1131 3440 144
1132 2408 1212
1132 2895 1203
1132 2974 1145
1133 2091 1091
1133 2211 1136
1133 2532 1278
1133 3375 1007
1134 3266 1039
1135 1630 181
1135 1953 1053
1135 2549 1266
1135 2695 1250
1136 2777 1231
1136 2955 1321
1139 1986 1063
1139 2936 1325
1139 3170 1064
1140 2276 1172
1140 3055 1117
1141 2497 1242
1142 3434 351
1143 1723 974
1143 2524 1264
1144 3256 1040
1145 2214 1161
1145 3424 979
1146 1487 144
1148 1817 1022
1148 2071 1100
1150 1620 734
1150 3106 1099
1150 3148 1068
1151 1901 1050
1151 1991 1078
1151 3478 934
1152 2154 1132
1154 2609 1376
1154 2609 1380
1155 1703 639
1155 2174 1145
1155 3261 1030
1156 2850 1188
1158 1617 944
1158 1714 985
1158 2334 1213
1160 1503 150
1161 1599 729
1161 1599 732
1161 1842 1031
1161 2469 1252
1163 1560 152
1163 1588 936
1163 1676 955
1165 3492 939
1166 1836 1026
1166 2833 1187
1168 1777 1003
1168 3350 1009
1168 3426 600
1171 1399 135
1171 2280 1201
1171 2406 1237
1172 1587 938
1173 2892 1147
1174 2605 1377
1175 3178 1044
1175 3417 973
1175 3468 938
1176 2626 1322
1177 1769 1015
1177 2038 1112
1177 3058 1108
1178 1926 1051
1178 3114 1081
1179 1683 980
1179 2410 1244
1181 2305 1205
1182 1374 139
1182 2727 1207
1183 2540 1403
1183 2969 1135
1183 3038 1114
1184 2790 1198
1184 3386 980
1185 2969 1124
1186 2086 1113
1186 2403 1232
1186 3277 1012
1188 1963 1080
1188 2118 1142
1188 2690 1229
1189 2607 1249
1189 2772 1209
1190 1312 94
1191 3066 1088
1192 2528 1278
1193 2603 1445
1195 2942 1130
1196 3357 990
1197 2210 1182
1199 1542 454
1199 2532 1406
1200 2542 1280
1201 1827 1049
1201 2081 1127
1201 3160 1040
1203 2203 1164
1204 1896 1071
1204 1986 1101
1204 2149 1155
1205 1482 148
1205 1531 638
1206 3166 1034
1207 2861 1162
1208 1628 966
1208 2184 1174
1209 1513 940
1209 3256 1009
1210 1978 1093
1210 2268 1201
1210 3253 1013
1211 1724 1014
1211 2489 1271
1213 1555 187
1213 2464 1276
1213 3420 948
1214 1715 1004
1215 1583 962
1216 2717 1222
1218 1831 1051
1218 3102 1067
1219 2828 1166
1221 3345 986
1222 1772 1020
1222 3361 289
1222 3365 111
1223 2290 1227
1224 3412 941
1226 1395 151
1226 2887 1127
1227 2326 1241
1227 3356 477
1228 3173 1022
1230 3053 1085
1230 3109 1059
1231 1678 1002
1232 1834 1062
1232 2420 1272
1232 2635 1453
1233 1503 937
1233 2300 1228
1234 2738 1183
1234 2856 1137
1235 1384 147
1235 1667 988
1235 2980 1107
1236 3398 949
1237 2964 1101
1237 3288 986
1238 1307 138
1238 1464 458
1238 2398 1255
1239 2081 1135
1240 1524 730
1240 2685 1205
1241 1973 1109
1241 2767 1187
1242 2602 1226
1242 3077 1062
1243 2398 1269
1244 1578 972
1246 1514 919
1247 1761 1042
1247 2545 1264
1248 2030 1143
1249 1918 1082
1250 2205 1205
1250 2787 1173
1250 3034 1085
1252 3171 1012
1254 1838 1078
1254 2091 1156
1254 2537 1261
1256 1891 1096
1256 2610 1226
1257 1981 1122
1257 2110 1169
1257 2144 1177
1258 1537 452
1258 2872 1132
1260 2194 1202
1260 2525 1245
1261 1638 998
1261 2939 1102
1262 3251 988
1263 3353 964
1264 1734 1038
1265 1478 146
1267 1578 987
1268 1285 147
1268 3270 123
1271 1826 1072
1272 2460 1277
1272 2823 1144
1272 3265 314
1273 2195 1193
1273 2482 1275
1274 3163 1005
1274 3340 966
1275 1767 1044
1275 3260 500
1276 2300 1254
1277 2649 1203
1277 3249 984
1278 1505 964
1279 2882 1106
1281 1970 1123
1281 2259 1231
1281 3168 1000
1282 3048 1063
1283 1707 1030
1283 3104 1036
1284 1673 1024
1284 2431 1281
1284 2713 1192
1285 2749 1153
1285 3099 1037
1286 2295 1250
1286 2991 1079
1287 1391 145
1287 1513 965
1289 3300 957
1290 2959 1079
1291 2076 1158
1291 2393 1276
1292 2680 1181
1294 1508 961
1294 1983 1138
1294 3088 1033
1295 1302 147
1295 2597 1205
1295 2762 1167
1297 1448 670
1298 2317 1270
1298 2556 1236
1300 1460 447
1301 2853 1109
1302 1826 1091
1303 1387 729
1303 2200 1226
1303 3185 185
1304 3182 984
1305 1659 1015
1306 2532 1237
1307 1848 1105
1307 2101 1183
1307 2391 1280
1308 1887 1120
1309 1977 1145
1309 2139 1200
1310 2883 1104
1311 1456 945
1313 1230 138
1314 1570 999
1314 1648 1022
1314 3187 36
1315 3245 967
1316 2203 1334
1317 1744 1066
1317 3031 1056
1318 1752 1072
1318 2021 1174
1318 2783 1140
1319 1573 1011
1320 1909 1114
1321 1372 451
1321 3178 412
1322 1296 153
1323 1283 469
1323 2607 1198
1324 1821 1093
1324 2185 1337
1324 2818 1122
1325 3335 937
1326 2477 1254
1327 2522 1216
1328 1362 633
1328 1762 1064
1329 2102 1200
1329 2311 1284
1329 2660 1177
1329 2935 1072
1332 2877 1084
1333 3163 978
1335 2442 1253
1336 2760 1126
1336 3042 1042
1336 3099 1014
1337 1385 181
1337 1668 1047
1337 3002 1053
1338 2290 1271
1339 2456 1250
1340 1431 941
1340 1523 996
1340 3159 978
1342 2954 1057
1343 2071 1182
1345 2675 1161
1345 3099 1009
1345 3245 953
1346 1503 985
1347 1497 991
1347 1993 1166
1347 2592 1182
1347 2757 1144
1348 2389 1282
1349 2567 1208
1350 1200 113
1350 2251 1258
1350 2710 1164
1352 1961 1153
1352 3095 1010
1353 1698 1059
1354 1298 146
1354 2195 1254
1355 3193 958
1357 2527 1213
1359 2386 1257
1360 1858 1129
1360 2111 1211
1361 1394 961
1361 1882 1141
1361 1972 1169
1361 2134 1224
1361 2311 1278
1361 2894 1081
1363 1344 932
1363 1344 935
1363 1355 727
1365 1445 640
1365 3241 936
1367 1658 1048
1367 2214 1328
1368 2849 1082
1369 1225 151
1370 1754 1094
1371 1818 1117
1373 1568 1031
1373 1651 1039
1377 1817 1116
1377 2813 1100
1380 2180 1328
1380 2321 1268
1380 2671 1148
1381 1758 1085
1383 1447 978
1384 1562 1028
1384 2780 1114
1384 3027 1028
1385 2872 1063
1386 1279 461
1386 1744 1098
1387 3158 957
1388 2772 1100
1388 3037 1020
1389 2013 1203
1389 2451 1326
1389 3013 1025
1389 3094 993
1390 1426 971
1390 1664 1068
1390 1901 1141
1391 2603 1166
1392 1533 1021
1393 1269 644
1394 1296 939
1395 2285 1280
1395 2518 1185
1396 2066 1204
1396 2932 1044
1396 2948 1036
1397 2452 1252
1397 3111 982
1398 2670 1140
1399 1498 1007
1399 2093 1231
1399 2587 1160
1400 2003 1195
1400 2752 1122
1401 2578 1179
1402 1206 461
1402 1392 956
1403 3112 152
1405 1158 55
1406 1371 361
1407 2190 1273
1409 2467 1320
1409 3156 943
1411 1206 469
1411 3107 351
1412 1868 1158
1412 2121 1238
1413 1877 1164
1413 2306 1256
1413 2381 1237
1413 2906 1049
1413 3102 536
1413 3115 0
1414 1404 989
1414 1967 1191
1415 2129 1242
1415 2178 1255
1416 1339 959
1416 2386 1251
1417 1488 1018
1418 1308 945
1418 2706 1133
1419 2225 1290
1419 3091 981
1420 1668 1075
1421 2243 1288
1422 1765 1120
1423 1953 1183
1424 1690 1089
1426 1564 1050
1429 1262 725
1430 1812 1137
1430 2808 1079
1431 1251 933
1431 1296 84
1431 2683 1119
1432 2332 1241
1434 1753 1108
1436 2846 1049
1437 2446 1319
1437 3253 83
1438 2867 1040
1439 1222 115
1439 2783 1075
1439 3229 96
1440 1810 1143
1440 3025 997
1440 3153 937
1441 2462 1326
1441 3032 999
1442 3089 973
1443 1421 994
1443 1659 1089
1444 1643 1069
1445 1543 1048
1446 1306 967
1448 2944 1012
1448 3122 955
1449 2061 1227
1450 2665 1115
1451 3024 1000
1452 1493 1028
1452 2013 1223
1452 2582 1137
1452 2589 1152
1452 2747 1098
1452 2777 1084
1454 1553 1054
1455 1438 1011
1456 1265 632
1457 2514 1327
1457 2600 1139
1458 1736 1130
1459 1202 468
1459 2005 1233
1460 1893 1168
1462 2515 1155
1463 2282 1248
1464 2517 1174
1464 2917 1023
1464 2928 1013
1464 3050 180
1465 1878 1186
1465 2131 1268
1465 2185 1279
1465 2376 1215
1466 2301 1234
1467 1414 1016
1467 1872 1184
1467 1962 1212
1468 1334 982
1468 2124 1266
1468 2461 1316
1470 1213 726
1470 2085 1261
1470 2235 1267
1473 1102 48
1473 1384 987
1473 1678 1101
1474 2238 1267
1474 3044 390
1475 1774 1147
1477 1210 945
1478 1559 1074
1481 1246 962
1483 1807 1158
1483 2343 1212
1483 2693 1100
1483 2803 1057
1484 2382 1220
1484 2703 1110
1485 2170 1285
1485 2462 1190
1486 1748 1132
1487 1227 959
1487 1480 1045
1488 3088 947
1488 3169 13
1489 1299 977
1489 2475 1171
1490 2862 1018
1491 1945 1209
1491 2794 1045
1491 3036 614
1492 3036 972
1492 3084 942
1493 1682 1115
1495 1654 1112
1495 3027 979
1496 1050 50
1496 1416 1015
1498 1553 1078
1499 1316 995
1501 2056 1249
1501 2939 990
1503 1174 938
1503 2842 1022
1504 1185 729
1504 2600 1124
1504 2660 1097
1505 1489 1049
1505 2023 1251
1505 2577 1116
1506 2742 1079
1509 1173 935
1511 1801 1172
1513 1634 1094
1514 2958 143
1515 2928 997
1517 2141 1287
1517 2512 1150
1518 1888 1211
1518 2371 1193
1518 3020 973
1519 1867 1206
1519 2296 1213
1520 1329 1007
1520 1424 1044
1520 1957 1233
1520 2120 1289
1520 2773 1052
1522 1198 457
1522 2246 1239
1524 1430 1038
1525 1687 1131
1525 2596 1109
1526 1545 1087
1527 1220 963
1527 2233 1246
1528 1728 1158
1528 1784 1178
1528 2951 362
1529 2511 1127
1530 972 58
1530 1885 1197
1530 1996 1263
1530 2925 987
1531 1554 1099
1531 2279 1217
1533 2182 1244
1534 1241 986
1534 2705 1066
1535 1802 1181
1535 2354 1189
1535 2798 1034
1536 3157 101
1537 2457 1167
1538 2945 570
1539 1743 1154
1540 2077 1289
1541 2446 1159
1541 2486 1145
1542 2164 1274
1542 2805 1018
1543 1375 1016
1543 2857 995
1543 3047 939
1547 3022 956
1548 1649 1134
1548 2956 64
1549 1411 1035
1551 1563 1104
1551 2379 1190
1552 1326 1022
1553 2700 1075
1554 1045 55
1554 2051 1273
1555 2611 1099
1555 2655 1071
1555 2933 972
1556 956 59
1557 2738 1054
1558 1169 957
1558 1219 990
1558 1472 1075
1558 1484 1072
1558 2033 1277
1558 2572 1094
1559 1290 1006
1561 1937 1236
1561 3097 79
1563 2875 166
1564 1674 1145
1567 2939 972
1568 2508 1125
1569 2152 1260
1569 2291 1185
1570 2366 1169
1570 2839 993
1571 1898 1241
1571 2869 371
1572 1862 1229
1573 1434 1071
1573 1952 1255
1573 2257 1212
1574 1119 943
1574 1324 1025
1576 2864 561
1576 3073 9
1578 1697 1158
1579 1164 964
1580 1794 1205
1580 2228 1224
1581 1230 993
1582 982 58
1582 1793 1204
1584 1549 1118
1585 1626 1128
1586 2365 1159
1586 2716 1037
1586 3017 942
1587 1236 1008
1587 2116 1260
1587 2770 1026
1588 1797 1204
1588 2793 1013
1589 2453 1144
1592 1738 1173
1592 2497 1115
1593 1422 1064
1593 2593 1079
1594 1537 1114
1594 2072 1272
1594 2159 1251
1594 2816 990
1596 2508 1098
1596 2852 975
1597 1185 611
1598 1111 960
1598 1719 1188
1598 2276 1187
1598 2921 955
1599 1988 1290
1600 1644 1159
1600 1876 1227
1600 2179 1218
1601 3039 47
1602 1407 1058
1604 1573 1132
1605 1336 1047
1605 2929 943
1607 2622 1071
1608 2046 1290
1608 2443 1130
1608 2650 1050
1610 1164 982
1610 1479 1096
1610 2043 1276
1610 2568 1072
1610 2733 1033
1613 1367 1044
1616 952 58
1618 2950 934
1619 2376 1159
1620 2163 1232
1620 2503 1103
1620 2696 1045
1622 2286 1165
1622 2361 1146
1623 1908 1269
1624 2268 1184
1625 1857 1250
1625 1947 1277
1626 1444 1099
1627 1319 1047
1628 1095 950
1628 1210 1019
1628 1282 1032
1629 1463 1107
1631 879 53
1631 1707 1186
1632 1030 942
1632 2223 1202
1633 1240 1016
1633 1804 1233
1633 1928 1269
1634 1665 1176
1637 1544 1139
1637 2727 1011
1637 2835 965
1638 2376 1132
1640 1231 1028
1640 1792 1226
1641 2788 992
1642 2448 1121
1643 2801 464
1644 1110 973
1644 1733 1198
1644 2508 1091
1645 2067 1245
1645 2827 963
1647 2154 1230
1648 2847 950
1651 1121 990
1651 1155 998
1651 2808 129
1652 1785 1232
1654 982 943
1654 1617 1155
1654 1639 1178
1654 2113 1229
1654 2766 996
1655 1402 1080
1656 1583 1161
1658 1345 1078
1658 2633 1044
1660 2590 1049
1661 2054 1251
1661 2645 1029
1662 991 934
1663 955 942
1663 1474 1119
1663 2563 1050
1663 2728 1011
1664 1159 1003
1664 1413 1095
1664 1528 1142
1664 2505 1069
1665 1110 613
1665 2272 1160
1665 2801 350
1666 1133 189
1668 1711 1216
1668 2176 1185
1669 1122 389
1671 1868 1259
1672 1980 1327
1672 2174 1205
1674 2043 1263
1674 2498 1082
1675 1918 1285
1675 2281 1143
1675 2356 1126
1676 948 55
1676 2279 1157
1677 1852 1273
1677 2440 1097
1678 1454 1125
1680 1090 976
1680 1314 1068
1683 1358 1072
1683 1943 1284
1684 1717 1214
1684 2218 1180
1686 1250 1045
1686 1814 1258
1686 2373 1130
1687 2693 1018
1689 1539 1164
1689 2387 1104
1689 2738 984
1693 1227 1050
1693 1787 1247
1695 2443 1102
1695 2519 1063
1695 2783 971
1697 1202 1045
1697 1728 1220
1698 2062 1224
1699 1273 1063
1699 1455 1136
1699 2150 1207
1699 2838 936
1702 1021 971
1702 1920 1296
1702 2832 943
1704 1131 1015
1704 1657 1202
1705 1634 1204
1707 991 976
1708 1397 1102
1709 1593 1189
1710 1355 1102
1710 2644 1017
1713 986 962
1713 2037 1332
1713 2065 1221
1714 1102 1001
1714 2640 1009
1716 1030 118
1716 1469 1139
1716 2558 1029
1717 1154 1024
1717 2722 992
1719 1147 1022
1721 2763 969
1722 1776 1261
1722 2110 1200
1722 2744 117
1723 898 938
1723 2185 1176
1724 1020 299
1725 1609 1187
1726 2352 1099
1726 2493 1059
1727 2290 1129
1727 2586 1020
1728 1928 1322
1728 2276 1121
1729 2739 314
1730 1010 487
1730 1974 1322
1731 947 967
1731 1464 1153
1731 1848 1291
1731 2501 1040
1732 2269 1132
1733 1085 999
1733 1309 1092
1733 1405 1122
1733 2733 508
1735 2172 1159
1736 1520 1174
1736 1727 1241
1737 2213 1158
1738 902 934
1738 1703 1245
1738 1824 1290
1739 1260 1072
1739 1938 1294
1740 2749 953
1741 2398 1077
1742 1534 1187
1742 1860 1290
1743 2436 1072
1744 2778 939
1746 1222 1071
1746 1783 1270
1747 900 952
1747 2438 1078
1747 2530 1033
1750 1723 1242
1750 2057 1201
1752 2145 1185
1753 2369 1102
1754 1350 1102
1755 2689 988
1757 1140 1043
1757 1974 1224
1757 2655 244
1758 1629 1226
1760 1001 1004
1760 1392 1125
1761 2655 990
1762 1603 1218
1763 1365 1133
1763 2659 80
1764 2076 1196
1765 981 988
1766 2635 985
1767 1193 1075
1767 2649 452
1768 1446 1164
1768 1464 1162
1768 1913 1315
1769 1265 1091
1769 2553 1008
1769 2717 970
1770 1150 1043
1774 1012 1004
1774 1649 1233
1774 2196 1147
1775 893 962
1777 937 122
1778 2488 1036
1779 2301 1104
1779 2347 1079
1780 1842 1325
1780 1938 1325
1781 2271 1099
1783 1094 1025
1783 1474 1181
1785 927 303
1785 1305 1115
1786 1080 1020
1788 1933 1326
1788 2759 943
1789 1139 1050
1789 1737 1271
1789 2107 1172
1789 2209 1136
1790 1835 1270
1791 1768 1290
1792 1270 1099
1792 2409 1051
1793 917 485
1794 2571 189
1795 1529 1207
1795 1601 1215
1795 2583 991
1796 1854 1273
1798 2541 1007
1799 1217 1094
1799 1778 1292
1799 2498 1011
1800 910 985
1800 2266 1101
1800 2433 1056
1801 2652 192
1802 938 998
1802 1719 1264
1802 2052 1179
1802 2169 1130
1803 1396 1150
1804 1512 1200
1804 2140 1161
1808 855 269
1808 1694 1275
1808 2574 51
1809 894 966
1809 1150 1069
1809 1969 1203
1810 2037 1202
1811 1625 1246
1811 2433 1042
1813 1011 1030
1813 1387 1148
1813 2666 963
1814 1613 1245
1814 1909 1275
1816 1375 1158
1816 2087 1169
1818 2562 442
1819 976 1008
1819 2630 963
1819 2713 939
1821 1459 1186
1821 2366 1073
1821 2548 984
1823 1145 1065
1823 2686 958
1824 1341 1132
1826 2207 1122
1828 888 985
1830 1950 1204
1830 2312 1074
1832 2483 1016
1833 2266 1077
1833 2341 1059
1836 769 935
1836 814 953
1836 1484 1209
1837 1185 1105
1837 1438 1190
1838 1257 1118
1839 1075 1041
1839 1300 1134
1841 1747 1291
1841 1846 1238
1842 2204 1114
1843 1004 1032
1844 837 949
1844 1280 1127
1844 1640 1261
1844 1763 1269
1844 2420 1023
1848 1524 1228
1848 1850 1250
1849 815 958
1850 2552 981
1852 774 262
1852 1212 1114
1852 2428 1032
1853 919 1012
1853 1085 1057
1855 1714 1287
1855 1906 1218
1855 2047 1158
1857 2103 1142
1857 2135 1141
1860 1130 1082
1862 1160 1099
1863 1964 1183
1863 2579 962
1864 1620 1269
1865 1021 1059
1865 1592 1246
1865 1774 1266
1866 1382 1169
1866 2495 981
1867 1622 1272
1867 2097 1141
1868 851 270
1868 1385 1188
1868 2262 1071
1869 1842 1223
1870 1688 1280
1870 2166 1102
1871 2625 937
1872 930 1025
1872 971 1031
1873 2543 962
1874 1388 1182
1874 1454 1207
1876 1140 1089
1878 473 154
1878 2034 1172
1878 2217 1100
1878 2430 1014
1879 885 994
1880 883 1009
1882 1961 1175
1882 2323 1045
1884 692 935
1884 2478 994
1885 2337 1036
1886 697 940
1886 1429 1331
1886 2261 1055
1888 1933 1187
1889 824 983
1889 2362 1043
1890 1492 1333
1891 1295 1157
1892 842 391
1892 842 394
1892 1070 1063
1892 1758 1260
1893 1333 1160
1893 1856 1214
1894 735 944
1895 2199 1093
1896 2431 998
1897 1290 1154
1897 1758 1248
1900 832 575
1900 1446 1320
1900 1520 1251
1901 810 982
1901 1845 1228
1902 2498 150
1902 2563 953
1903 760 960
1904 417 116
1905 1207 1137
1905 2423 1013
1906 929 1037
1907 1176 1133
1907 1901 1194
1908 1248 1148
1908 2042 1137
1909 1496 1331
1909 2130 1118
1909 2492 351
1910 588 54
1910 770 267
1912 995 1058
1914 1632 1290
1914 2487 545
1915 828 980
1915 1170 1126
1915 1959 1160
1917 1615 1290
1918 1031 1085
1918 1710 1274
1919 1377 1192
1919 1632 1292
1919 2108 1114
1921 382 168
1921 1395 1214
1922 1683 1257
1923 1076 1084
1923 1427 1267
1924 2100 1113
1925 966 1050
1925 2538 936
1927 404 178
1928 1135 1112
1929 2228 1068
1930 1121 1111
1931 483 189
1932 504 101
1933 1771 1236
1933 1972 1148
1934 878 1029
1934 2334 1017
1935 1584 1275
1935 2259 1042
1935 2491 950
1936 707 964
1936 1838 1194
1938 2163 1069
1938 2332 1015
1938 2473 974
1939 2257 1034
1940 921 1051
1941 1503 1282
1942 834 1012
1943 1380 1209
1944 1065 1087
1944 1290 1180
1944 1769 1231
1945 411 184
1945 1867 1186
1945 2426 986
1946 2030 1140
1947 1494 1266
1947 2442 968
1948 730 962
1948 876 1022
1948 2194 1071
1949 1299 1183
1949 1753 1224
1952 1515 1275
1953 1840 1206
1954 683 963
1955 806 1003
1956 2359 1014
1957 1202 1160
1957 1930 1152
1958 939 1063
1958 2418 991
1959 2432 459
1960 1896 1175
1961 2038 1115
1962 1325 1188
1962 2442 104
1963 765 289
1963 2125 1098
1967 271 143
1967 1180 1154
1967 1627 1271
1967 1954 1136
1968 572 86
1969 341 145
1969 497 182
1970 1643 1261
1970 2119 1084
1971 755 470
1971 1041 1111
1971 1373 1214
1973 1405 1242
1974 392 188
1974 751 991
1975 624 945
1975 1678 1236
1977 1168 1164
1977 1240 1175
1978 587 943
1978 961 1073
1978 1421 1251
1979 1445 1249
1979 2434 337
1981 987 1084
1981 1130 1136
1981 2239 1042
1982 1611 1269
1984 493 181
1985 1707 1244
1985 1983 1119
1985 2345 992
1986 819 1011
1987 873 1051
1989 717 995
1990 2327 992
1990 2468 950
1991 2252 1013
1991 2492 54
1992 1068 1111
1992 2097 1084
1994 843 1036
1994 1513 1294
1996 1285 1204
1996 1779 1209
1996 1878 1158
1997 1061 1108
1998 1113 1136
1999 1577 1285
1999 2189 1045
1999 2453 939
2000 725 987
2001 1768 1205
2002 406 194
2002 1309 1210
2002 1748 1203
2004 625 952
2004 1835 1163
2004 2256 1011
2004 2349 135
2006 1835 1184
2006 2159 1040
2007 801 1026
2007 2438 59
2008 1510 1287
2009 162 160
2009 1197 1183
2010 196 144
2010 247 165
2010 913 1079
2010 2413 968
2011 949 1090
2013 1371 1238
2013 1892 1152
2013 2027 1111
2013 2033 1092
2014 662 188
2015 1486 1290
2015 2120 1076
2015 2342 348
2015 2423 951
2016 566 128
2017 2337 534
2018 281 183
2018 868 1051
2019 1622 1249
2019 1949 1113
2020 1190 1183
2021 523 938
2022 652 367
2022 1654 1233
2022 2130 1057
2023 1051 1139
2023 1927 1127
2024 674 994
2024 1368 1235
2024 2356 984
2026 619 972
2026 1415 1272
2027 403 173
2027 1673 1213
2029 493 178
2031 597 977
2031 957 1096
2032 1316 1218
2032 1440 1273
2033 2250 1012
2034 1125 1156
2035 149 166
2036 1993 1098
2037 2356 964
2038 2348 53
2039 868 1074
2042 727 1020
2043 743 1017
2043 2322 972
2044 2487 31
2045 1524 1265
2045 2247 991
2046 1159 1191
2047 853 1064
2047 1232 1203
2047 1413 1279
2047 1790 1175
2048 1889 1131
2049 494 940
2049 1280 1226
2050 1056 1131
2050 1608 1239
2051 978 1115
2051 1572 1263
2052 644 470
2052 1703 1218
2052 2184 1026
2052 2270 114
2053 720 1009
2054 811 1036
2054 1319 1237
2055 1743 1181
2056 190 190
2057 288 153
2057 2264 311
2058 1830 1161
2060 796 1048
2061 1060 1138
2061 2094 1053
2061 2258 502
2061 2409 941
2062 1192 1206
2064 402 185
2064 573 954
2064 959 1120
2065 490 938
2065 1887 1129
2066 2028 1070
2067 2115 1053
2068 1105 1164
2069 1481 1274
2069 1765 1174
2071 562 143
2072 292 193
2072 1199 1209
2072 1617 1228
2072 1944 1093
2072 2252 982
2073 1832 1130
2074 518 960
2074 616 982
2074 1665 1205
2074 2141 1029
2074 2156 1011
2076 551 333
2076 1060 1167
2076 1507 1256
2077 154 187
2077 1363 1258
2078 1425 1292
2079 413 158
2079 614 993
2079 1668 1190
2080 904 1110
2081 2024 1082
2082 1363 1266
2083 607 1004
2083 952 1117
2085 2261 986
2086 1435 1291
2087 1120 1178
2088 159 192
2088 859 1081
2088 2004 1065
2089 2343 25
2092 864 1096
2092 1924 1095
2092 2352 955
2093 666 1019
2094 489 163
2094 737 1048
2094 2317 944
2097 1535 1240
2097 2242 969
2099 1801 1151
2099 1900 1102
2100 107 155
2100 863 1093
2101 543 455
2102 504 969
2102 1275 1247
2102 1308 1247
2103 1051 1152
2103 1567 1241
2104 2179 1002
2106 715 1030
2107 1329 1268
2107 1407 1277
2107 1739 1160
2108 447 940
2110 283 177
2110 1825 1139
2112 734 1046
2114 185 197
2114 791 1069
2115 1187 1229
2116 969 1149
2116 1151 1219
2117 1882 1106
2118 1223 1236
2118 1605 1208
2118 2023 1047
2120 2110 1031
2121 1700 1185
2122 970 1146
2122 1476 1253
2124 93 146
2124 302 160
2124 802 1066
2124 1612 1204
2124 1939 1069
2125 1209 1236
2125 1675 1178
2126 513 984
2126 2152 1002
2128 1070 1194
2128 2090 1022
2129 1358 1282
2130 66 102
2130 1435 1263
2131 1051 1169
2132 610 1015
2132 1663 1169
2133 565 982
2134 481 966
2135 947 1142
2136 399 144
2136 617 1028
2136 2272 958
2137 1096 1193
2137 1762 1146
2138 2249 957
2139 1115 1202
2140 2015 1036
2141 170 198
2141 1829 1101
2141 2198 209
2142 2153 982
2144 413 940
2144 608 1010
2144 1504 1227
2145 859 1118
2147 746 1076
2147 2191 409
2148 1545 1212
2148 2237 942
2150 406 953
2150 2021 1050
2151 895 1140
2151 1355 1293
2151 1812 1123
2151 1910 1076
2152 873 1120
2154 1270 1270
2154 1432 1261
2155 102 174
2155 513 1000
2155 1046 1177
2156 1562 1219
2158 850 1110
2158 2174 982
2159 1339 1294
2160 442 961
2160 710 1049
2160 1402 1257
2160 1734 1137
2160 1921 1065
2162 658 1045
2164 1820 1120
2166 786 1091
2167 1183 1251
2168 370 650
2169 487 110
2169 978 1176
2170 381 438
2170 1877 1086
2171 2018 1025
2172 1299 1277
2173 2105 1010
2174 88 116
2174 181 198
2174 476 298
2175 279 158
2177 1219 1264
2177 1607 1183
2177 1686 1151
2177 1935 1047
2178 2163 977
2179 508 1006
2180 393 193
2181 1080 1224
2183 75 145
2183 725 1077
2183 1445 1323
2185 305 707
2185 466 469
2185 605 1038
2185 1602 1181
2185 1658 1149
2186 1142 1249
2186 1215 1262
2188 626 1057
2188 942 1166
2189 1354 1279
2190 1697 1154
2192 961 1177
2192 1110 1224
2192 2026 1009
2194 180 194
2194 793 1098
2196 2087 995
2197 423 976
2198 854 1141
2199 756 1103
2200 1556 1187
2201 24 119
2202 1042 1200
2202 1823 1095
2203 352 940
2203 556 1012
2203 1921 1047
2204 363 733
2204 472 995
2204 1350 1271
2204 1758 1119
2205 883 1150
2205 1465 1321
2207 523 1025
2207 1088 1222
2207 1266 1293
2208 1041 1200
2209 1825 1071
2210 1500 1202
2210 2169 959
2211 19 123
2211 1349 1271
2211 2149 949
2212 705 1073
2212 1397 1234
2213 397 86
2213 437 984
2213 599 1037
2213 1729 1116
2217 1815 1097
2217 2017 1022
2218 1136 1343
2219 781 1115
2219 2127 62
2220 397 984
2220 887 1170
2220 1178 1273
2221 988 1203
2222 1428 1230
2223 1872 1063
2223 2122 256
2224 2013 1004
2225 99 137
2226 2100 988
2227 842 1139
2227 1917 1038
2228 2115 454
2229 1697 1122
2229 2174 943
2230 263 381
2230 274 174
2230 1229 1295
2230 1603 1161
2230 1929 1027
2232 504 1027
2232 649 1076
2233 1090 1251
2233 1457 1207
2234 1292 1284
2234 1465 1231
2235 1492 1319
2236 86 143
2237 177 185
2238 600 1060
2238 1654 1126
2239 1258 1381
2240 312 958
2240 937 1187
2241 636 1087
2243 2037 985
2245 79 147
2245 1105 1246
2246 191 137
2248 339 960
2249 432 1003
2250 849 1164
2250 1549 1320
2251 717 1103
2251 2034 181
2252 766 1133
2252 1567 1154
2253 244 711
2254 1345 1244
2254 1599 1148
2254 1833 1068
2255 1134 1278
2255 1932 1021
2256 347 962
2257 1694 1125
2258 892 1177
2258 1351 1244
2260 533 1051
2260 1036 1223
2261 19 117
2261 952 1205
2261 2165 934
2262 1360 1237
2263 1392 1210
2264 14 101
2264 700 1098
2264 784 1126
2264 2026 403
2264 2084 966
2265 432 1007
2268 1723 1103
2269 1810 1075
2270 1755 1095
2271 1034 1228
2272 547 1038
2272 776 1135
2273 464 1021
2274 998 1230
2274 1173 1289
2274 1262 1264
2276 1079 1251
2276 1867 1043
2277 1549 1223
2277 1822 1043
2277 2008 984
2278 2096 966
2279 1461 1186
2280 1707 1097
2282 590 1065
2282 1598 1138
2282 1925 1003
2283 95 143
2283 1163 1458
2284 1237 1466
2285 499 1050
2285 1099 1279
2285 1467 1179
2285 2014 994
2286 1287 1261
2289 389 1011
2289 878 1198
2289 1649 1102
2290 1425 1199
2291 95 141
2291 595 1082
2291 1488 1333
2293 322 988
2293 932 1210
2294 646 1115
2295 260 363
2295 275 944
2295 1254 1390
2295 1914 1009
2295 2048 952
2297 0 79
2297 833 1169
2297 1101 1270
2299 152 588
2299 162 385
2300 173 175
2300 1197 1421
2300 1197 1423
2301 640 1104
2302 73 136
2302 442 1032
2303 844 1187
2304 228 943
2304 776 1159
2304 1578 1126
2306 1844 1039
2307 1943 994
2308 1340 1225
2309 342 985
2310 191 943
2310 902 1206
2312 543 1080
2312 1945 187
2313 1031 1245
2313 1547 1153
2314 1371 1209
2316 1127 1283
2316 1387 1188
2317 696 1118
2317 1167 1347
2317 1719 1071
2318 143 729
2318 330 988
2319 427 1027
2319 1275 1536
2320 8 86
2321 708 1132
2321 1595 1121
2321 1806 1052
2323 1938 405
2324 771 1159
2325 1348 1220
2326 1008 1258
2326 1691 1095
2328 16 91
2328 182 935
2329 1862 1021
2329 2091 938
2330 2003 963
2331 944 1234
2331 2080 936
2332 776 1152
2332 1457 1164
2332 1718 1067
2334 242 639
2334 1593 1116
2334 1920 981
2335 1249 1344
2336 1478 1151
2337 494 1074
2338 1110 1280
2339 90 154
2339 1025 1253
2339 1283 1239
2340 1752 1058
2341 455 1046
2342 538 1068
2342 1259 1234
2342 1644 1080
2343 590 1105
2345 1071 1279
2345 1819 1012
2346 113 451
2346 332 1015
2346 656 1142
2346 927 1232
2350 11 74
2350 1096 1291
2350 1193 1395
2352 582 1094
2352 2011 966
2355 223 972
2355 452 1058
2355 839 1209
2355 1588 1099
2357 380 1036
2357 786 1188
2358 870 1224
2358 1422 1170
2358 1855 1012
2358 1954 968
2359 124 124
2360 67 127
2360 1161 1400
2360 1335 1202
2361 1196 1247
2362 200 975
2362 337 1006
2362 912 1233
2363 1911 979
2365 553 1106
2365 1026 1268
2366 824 1198
2366 1381 1181
2366 1543 1130
2367 265 980
2368 1122 1259
2368 1382 1165
2369 691 1144
2370 1714 1049
2371 631 1136
2372 101 712
2372 422 1049
2372 1276 1336
2373 127 945
2374 1801 1030
2375 3 71
2377 766 1180
2378 1017 1289
2381 1857 997
2382 1998 939
2384 1452 1142
2384 1729 1041
2385 91 931
2385 1261 1212
2386 111 387
2386 1588 1093
2387 1915 959
2388 321 1017
2388 1489 1123
2389 1120 1253
2389 1258 1345
2389 1592 1091
2390 489 1094
2391 700 1161
2391 1278 1216
2392 12 79
2393 1344 1189
2393 1688 1066
2394 1639 1059
2396 585 1126
2398 342 1040
2398 665 1173
2399 922 1255
2399 1870 509
2401 141 646
2401 172 975
2401 935 1266
2401 1880 148
2402 767 1183
2405 1064 1280
2407 462 1084
2407 1599 1072
2408 218 996
2408 834 1232
2409 795 1215
2409 1749 1028
2409 1866 985
2409 1873 356
2410 447 1072
2410 530 1094
2410 1017 1288
2410 1964 940
2411 1256 1204
2412 1330 1178
2413 1191 1224
2413 1816 982
2415 210 1008
2415 332 1028
2415 922 1260
2416 1092 1266
2417 562 1134
2417 1491 1104
2418 1021 1291
2418 1392 1154
2418 1538 1109
2420 573 1121
2420 1378 1143
2421 1117 1237
2422 686 1167
2422 1709 1027
2424 122 974
2425 417 1071
2426 372 1061
2426 1419 1141
2426 1796 1007
2429 761 1205
2429 861 1257
2430 1028 1274
2433 1852 976
2433 1907 946
2435 107 353
2436 114 174
2436 1447 1119
2436 1740 1011
2437 256 1010
2437 815 1229
2437 1271 1184
2439 1583 1071
2439 1910 935
2440 623 1163
2440 1499 1101
2441 1131 1225
2443 484 1116
2443 1273 1195
2447 1634 1035
2449 580 1149
2451 351 1068
2451 675 1199
2451 917 1277
2455 1817 183
2457 312 1046
2457 1059 1257
2458 1589 1061
2459 1610 1044
2460 691 1190
2461 213 1016
2461 829 1254
2462 471 1111
2462 805 1245
2462 1341 1157
2462 1684 1035
2462 1877 958
2463 1326 1154
2464 1821 27
2465 1187 1201
2467 220 1032
2467 327 1051
2467 931 1291
2467 1011 1280
2469 164 1000
2469 572 1157
2469 927 1292
2470 1403 1124
2472 758 1213
2472 1533 1090
2472 1809 420
2473 1112 1217
2473 1373 1121
2475 169 836
2475 681 1187
2475 1704 1004
2476 412 1098
2477 1745 997
2478 1791 984
2479 1253 1173
2480 175 669
2480 1163 1195
2481 757 1228
2482 181 493
2482 521 1126
2482 521 1128
2482 1038 1243
2482 1812 951
2483 1018 1271
2484 1089 1236
2484 1487 1080
2486 1848 954
2488 1282 1156
2488 1442 1096
2488 1751 986
2489 187 332
2489 564 1148
2491 1578 1048
2492 1510 1068
2493 1141 1196
2494 479 1145
2495 192 166
2495 1268 1171
2495 1416 1107
2498 362 1098
2498 852 1284
2499 1629 1013
2502 575 1171
2503 361 1099
2503 685 1225
2505 248 1035
2505 807 1256
2508 614 1188
2508 913 1286
2508 1725 193
2511 1620 1017
2512 481 1143
2513 824 1277
2514 208 1038
2514 815 1271
2516 1321 1132
2516 1718 401
2517 1182 1179
2519 942 1273
2519 1082 1318
2520 230 1060
2520 322 1075
2520 1006 1258
2521 1413 1097
2522 582 1186
2522 922 1270
2523 1528 1064
2525 1368 1099
2527 303 1077
2527 1586 1028
2528 676 1210
2528 1699 983
2529 682 1217
2530 407 1118
2530 1338 1128
2530 1681 1006
2531 1786 962
2534 752 1251
2535 1047 1332
2538 247 955
2540 1293 1129
2540 1761 959
2541 750 1241
2541 1048 1331
2541 1437 1074
2543 1573 1025
2544 252 791
2544 1521 1040
2544 1742 972
2545 1152 1168
2548 258 622
2548 1085 1223
2548 1160 1164
2548 1250 1141
2548 1263 1149
2549 474 1160
2549 512 1152
2550 1647 254
2551 1015 1243
2552 428 1142
2552 1624 990
2553 1484 1045
2555 264 458
2555 371 1127
2555 571 1191
2555 695 1254
2555 846 1278
2555 1651 86
2557 1640 461
2560 269 291
2560 555 1180
2563 1412 1078
2563 1631 987
2564 491 1168
2566 354 1124
2566 825 1289
2567 275 127
2569 1177 1156
2569 1316 1113
2571 820 1282
2571 952 1243
2571 1048 1242
2571 1098 1332
2572 239 1089
2572 318 1098
2572 1001 1236
2573 1424 1068
2574 591 1217
2575 917 1251
2575 1523 1040
2576 798 1288
2576 910 1256
2576 1078 1328
2577 606 1215
2578 1103 1173
2578 1363 1076
2580 1695 959
2581 671 1231
2581 1782 936
2583 402 1140
2587 747 1273
2587 1057 1330
2592 1303 1099
2593 1432 1050
2595 1532 1014
2595 1569 1001
2595 1583 1001
2596 294 1106
2596 1163 1139
2598 674 1245
2598 1678 979
2599 1335 1097
2600 1258 1128
2602 469 1183
2604 1620 968
2607 566 1214
2607 841 1255
2608 380 1153
2608 704 1280
2610 741 1268
2613 1739 942
2614 1045 1190
2614 1642 961
2616 1246 1111
2617 501 1196
2618 504 1181
2618 835 1259
2618 1157 1134
2619 420 1164
2619 1011 1212
2621 1172 1134
2621 1311 1090
2622 963 1215
2622 1481 1014
2623 295 1006
2624 996 1212
2625 313 1119
2625 1435 1041
2625 1591 176
2626 601 1244
2626 912 1226
2627 547 1204
2627 1518 1017
2629 300 844
2630 1098 1149
2630 1358 1053
2631 1690 935
2632 792 1279
2632 1409 1047
2633 1073 1338
2634 345 1151
2634 666 1253
2634 1583 390
2635 306 678
2635 398 1163
2637 1070 1164
2639 817 1251
2640 742 1295
2641 311 513
2644 1314 1073
2645 597 1242
2646 907 1222
2646 1427 1030
2647 317 346
2647 1542 983
2648 1173 1114
2648 1564 982
2653 1253 1105
2654 322 184
2654 464 1205
2655 1615 940
2660 390 1184
2660 561 1237
2660 715 1275
2660 836 1236
2663 1579 973
2666 1040 1167
2667 665 1273
2668 1332 1065
2668 1675 941
2669 510 1226
2670 846 1233
2673 1306 1066
2674 974 1188
2674 1167 1113
2676 991 1189
2677 733 1291
2677 1445 1013
2679 611 1274
2679 907 1205
2679 1513 994
2682 1093 1124
2682 1353 1031
2683 788 1253
2685 1243 1082
2687 661 1275
2687 1154 1101
2688 393 1187
2688 1008 1180
2689 411 1194
2689 495 1213
2689 1081 1133
2690 1478 987
2695 1539 124
2696 1325 1047
2697 538 1235
2698 1422 1007
2698 1533 318
2700 1184 1086
2700 1406 1018
2700 1553 955
2700 1559 956
2702 336 1176
2704 1526 520
2705 1248 1082
2707 460 1228
2707 814 1223
2708 739 1264
2712 341 1022
2712 400 1209
2712 556 1262
2712 724 1331
2712 831 1211
2714 903 1193
2716 588 1274
2717 1636 26
2718 347 858
2718 1035 1145
2721 520 1252
2722 352 689
2722 856 1206
2726 984 1160
2726 1301 1045
2727 358 521
2727 658 1275
2727 1162 1092
2728 986 1168
2729 1445 184
2729 1456 988
2730 728 1272
2731 621 1285
2731 902 1183
2731 1576 943
2732 364 349
2732 1508 975
2734 1088 1104
2735 370 175
2735 1328 1038
2735 1348 1009
2741 388 1209
2741 657 1291
2741 1091 1107
2748 732 1329
2748 1335 1017
2748 1435 428
2750 1418 983
2752 1195 1058
2755 1151 1071
2755 1240 1048
2756 403 1219
2757 1005 1150
2757 1244 1060
2758 486 1242
2759 1076 1113
2760 455 1251
2760 1475 952
2764 734 1330
2764 826 1189
2765 551 1284
2765 776 1321
2767 529 1268
2767 1371 188
2769 1403 989
2771 1030 1123
2773 867 1177
2774 530 1279
2776 405 1097
2776 581 1276
2777 810 1190
2778 418 736
2778 995 1134
2778 1157 1066
2778 1296 1022
2779 654 1251
2780 724 1241
2781 1467 957
2782 900 1164
2782 981 1148
2783 631 1255
2783 1504 946
2784 897 1161
2786 410 944
2786 1083 1081
2787 778 1208
2787 1343 989
2789 1360 441
2793 1102 1079
2796 1371 93
2800 420 621
2800 1346 990
2802 426 440
2803 1413 962
2804 1205 1029
2805 1325 1007
2807 728 1330
2810 653 1260
2810 1238 1039
2812 450 1274
2815 746 1192
2816 821 1167
2817 430 303
2817 437 118
2822 1237 1021
2824 478 1264
2824 1025 1102
2824 1148 1039
2825 877 1149
2826 540 1283
2826 547 1278
2826 1002 1119
2827 577 1251
2830 1005 1105
2831 1152 1047
2832 496 740
2832 648 1232
2832 719 1219
2832 1291 1004
2833 976 1124
2834 482 1111
2834 521 1289
2835 642 1228
2836 892 1139
2837 1074 1053
2837 1368 33
2838 1400 956
2839 1078 1060
2840 773 1187
2840 1338 965
2842 487 955
2845 807 1160
2845 1113 1051
2846 732 1201
2850 897 1134
2852 1357 960
2853 1408 935
2855 1316 152
2856 1216 1000
2856 1524 62
2858 497 634
2858 504 450
2860 1309 355
2862 1234 1016
2866 445 1292
2867 757 1164
2867 1301 562
2868 817 1141
2873 514 123
2873 1322 976
2876 1020 1079
2877 550 1255
2877 888 1121
2878 506 325
2879 650 1229
2880 572 1231
2882 1016 1078
2883 1147 1023
2884 517 1260
2884 644 1208
2884 714 1197
2884 1286 979
2885 971 1101
2887 652 1200
2888 887 1115
2890 1334 935
2891 1234 990
2892 1073 1038
2893 768 1166
2893 1144 1009
2894 521 1108
2894 999 1090
2895 544 1247
2897 1070 1051
2897 1123 1023
2901 526 947
2902 532 767
2908 1226 976
2912 537 612
2913 804 1134
2913 1229 993
2915 729 1170
2916 543 438
2919 767 1143
2920 894 1103
2921 548 269
2921 812 1124
2921 1245 464
2928 1256 112
2929 553 105
2929 898 1095
2929 1015 1059
2933 566 1211
2934 1027 1048
2935 1143 999
2935 1282 953
2936 639 1185
2936 709 1175
2937 967 1077
2939 663 1173
2941 882 1095
2941 1247 339
2943 1319 943
2944 1068 1014
2946 762 1147
2947 647 1200
2949 1134 995
2960 1168 150
2960 1230 961
2960 1237 940
2961 1141 980
2962 540 1222
2963 995 1058
2965 1067 1022
2966 1224 971
2968 1160 362
2973 777 1113
2981 909 1065
2981 1010 1035
2984 562 1185
2984 726 1139
2986 1037 1022
2988 1138 980
2989 633 1167
2989 704 1153
2989 891 1070
2990 673 1144
2990 961 1057
2993 566 1029
2993 877 1072
2996 1063 994
2997 758 1121
2999 571 865
3001 1144 970
3003 1086 272
3004 577 694
3005 1092 93
3009 582 524
3011 1079 485
3013 588 352
3015 644 1172
3017 1219 945
3019 593 183
3023 788 1080
3026 802 1080
3031 1138 947
3032 992 1029
3032 1006 1011
3034 920 1038
3035 1063 990
3038 1048 995
3041 1133 956
3042 628 1145
3042 698 1135
3042 957 1034
3043 684 1120
3046 872 1052
3049 753 1098
3049 1058 972
3052 798 1068
3053 723 1107
3053 1155 936
3057 632 1008
3057 887 1043
3062 637 841
3066 643 669
3068 1029 193
3073 648 502
3075 654 324
3075 799 1050
3078 797 1056
3082 659 160
3084 1001 988
3085 930 1012
3089 695 1094
3090 1058 968
3092 1018 455
3094 1128 937
3095 694 1094
3095 700 931
3095 952 1012
3097 1029 98
3098 867 1028
3099 1054 941
3101 705 762
3101 989 997
3102 748 1079
3102 1060 963
3106 710 592
3111 716 421
3117 721 256
